ply
format ascii 1.0
element vertex 1079
property float32 x
property float32 y
property float32 z
property float32 I
end_header
18.7260 14.0399 0.4085 0.9106
17.9771 15.4622 0.4139 0.9095
18.6018 25.7284 0.5542 0.8807
39.1406 11.0391 -0.7099 0.8499
35.4434 11.2907 -0.6493 0.8617
25.1302 10.8888 -0.4781 0.8962
20.9493 10.7966 -0.4114 0.9100
19.2320 10.7415 -0.3845 0.9156
18.2737 11.0249 -0.3725 0.9182
15.3825 10.7476 -0.3275 0.9277
14.9957 11.2431 -0.3271 0.9278
14.3494 12.3420 -0.3304 0.9271
12.0729 11.1086 -0.2864 0.9365
12.1048 12.7364 -0.3067 0.9321
12.1301 13.6507 -0.3188 0.9295
12.2224 14.7191 -0.3339 0.9263
11.9619 15.4288 -0.3408 0.9249
12.0564 17.9093 -0.3768 0.9173
11.5775 18.5071 -0.3810 0.9164
10.8900 18.7788 -0.3789 0.9168
9.1083 18.4524 -0.3592 0.9210
8.3920 18.5409 -0.3552 0.9218
8.0832 19.5791 -0.3697 0.9188
6.6691 34.5721 -0.6146 0.8686
5.5781 35.2209 -0.6224 0.8670
4.2102 33.8967 -0.5962 0.8723
1.9460 34.3546 -0.6006 0.8714
0.7841 33.9505 -0.5928 0.8730
-0.3529 33.9126 -0.5920 0.8731
-2.6455 34.1138 -0.5972 0.8721
-3.8062 34.1831 -0.6003 0.8714
-6.1819 34.3855 -0.6098 0.8696
-10.9660 34.0158 -0.6238 0.8668
-13.7060 34.4303 -0.6468 0.8622
-15.4533 35.3281 -0.6731 0.8570
-16.4899 34.5023 -0.6675 0.8581
-25.2701 33.4621 -0.7319 0.8456
-26.9348 33.2870 -0.7474 0.8426
-28.8640 33.3241 -0.7695 0.8383
-30.9241 33.3753 -0.7942 0.8336
-22.6771 -49.1908 -2.8387 0.8050
65.2218 -44.2360 -4.1302 0.7293
65.7183 -41.4293 -4.0714 0.7326
67.7318 -39.5927 -4.1117 0.7303
70.8565 -38.2950 -4.2211 0.7243
79.6559 -33.2099 -4.5229 0.7077
81.0219 -15.9212 -4.3274 0.7184
96.1497 -12.2813 -5.0799 0.6782
97.7245 -5.8758 -5.1308 0.6756
97.6732 -2.5947 -5.1206 0.6761
98.9210 0.6862 -5.1844 0.6728
99.3725 4.0200 -5.2121 0.6714
98.1067 13.9171 -5.1930 0.6724
39.4982 11.1400 -2.1508 0.8484
36.2020 11.5323 -1.9912 0.8588
30.6802 10.9179 -1.7067 0.8777
25.4565 11.0302 -1.4540 0.8948
22.4335 10.6264 -1.3009 0.9054
16.7031 10.8564 -1.0440 0.9233
12.4537 10.7115 -0.8609 0.9363
11.2253 11.0454 -0.8253 0.9389
11.3022 11.8919 -0.8598 0.9364
11.3125 12.7306 -0.8925 0.9341
11.2511 13.5494 -0.9230 0.9319
11.3102 15.6433 -1.0117 0.9256
11.1265 17.7861 -1.0995 0.9194
9.7129 18.1216 -1.0775 0.9209
9.0442 18.3225 -1.0709 0.9214
8.4255 18.6149 -1.0708 0.9214
7.2737 19.4397 -1.0878 0.9202
5.9271 19.7863 -1.0825 0.9206
5.8421 22.1793 -1.2020 0.9122
7.5168 32.9851 -1.7730 0.8733
6.5339 33.8708 -1.8078 0.8710
4.2632 34.3230 -1.8126 0.8706
0.7898 34.2000 -1.7928 0.8719
-0.3561 34.2219 -1.7936 0.8719
-1.4990 34.1229 -1.7900 0.8721
-2.6476 34.1403 -1.7946 0.8718
-4.9508 34.0502 -1.8033 0.8713
-7.2950 33.9964 -1.8222 0.8700
-8.5005 34.0177 -1.8376 0.8690
-9.7634 34.1633 -1.8621 0.8673
-13.4485 33.7834 -1.9056 0.8645
-14.6508 33.4934 -1.9159 0.8638
-16.1925 33.8802 -1.9680 0.8604
-19.0369 33.8085 -2.0334 0.8561
-20.4728 33.6690 -2.0651 0.8540
-21.8132 33.3072 -2.0866 0.8526
-25.3156 33.5224 -2.2015 0.8451
-27.0564 33.4373 -2.2542 0.8417
-68.4907 64.6438 -4.9357 0.6858
-72.6273 64.0876 -5.0762 0.6784
-75.2032 62.0074 -5.1082 0.6768
-77.6015 59.7342 -5.1322 0.6755
-81.5784 50.6403 -5.0321 0.6807
-83.5385 48.0581 -5.0508 0.6797
-83.9727 41.0883 -4.8994 0.6877
-85.7577 38.4577 -4.9256 0.6863
-73.4370 24.4240 -4.0559 0.7335
-82.1253 24.2909 -4.4883 0.7096
-88.5689 19.8606 -4.7570 0.6952
-86.0128 13.3165 -4.5614 0.7057
66.6661 -40.7453 -4.0947 0.7313
71.7259 -37.4885 -4.2415 0.7231
72.9651 -35.0770 -4.2429 0.7230
88.5333 -28.7642 -4.8786 0.6888
80.1532 -14.5986 -4.2698 0.7216
96.5060 -10.9683 -5.0902 0.6777
98.0040 -4.5289 -5.1416 0.6750
-52.4461 0.0000 -4.5884 0.8101
-51.9569 -3.4858 -4.5558 0.8113
-51.6245 -5.2050 -4.5394 0.8119
-41.7209 -5.6234 -3.6831 0.8445
-49.6258 -10.1098 -4.4309 0.8160
-49.7345 -11.8795 -4.4736 0.8144
-48.5250 -15.0879 -4.4459 0.8154
-45.7207 -21.2701 -4.4117 0.8167
-44.6020 -22.5963 -4.3744 0.8181
-40.3411 -27.7715 -4.2848 0.8215
-38.2491 -30.2968 -4.2689 0.8221
-31.6745 -30.7374 -3.8615 0.8376
-29.8950 -33.1762 -3.9071 0.8358
-26.9858 -39.4923 -4.1847 0.8253
-21.8845 -43.5712 -4.2658 0.8222
-19.2540 -45.7348 -4.3414 0.8193
-18.0906 -47.3456 -4.4343 0.8159
-14.8262 -48.2730 -4.4180 0.8165
-13.1155 -48.4262 -4.3894 0.8175
0.1652 -47.6417 -4.1681 0.8259
3.3160 -46.9857 -4.1209 0.8277
4.8864 -46.8361 -4.1199 0.8277
9.5378 -46.0019 -4.1102 0.8281
11.0668 -45.6310 -4.1079 0.8282
18.8063 -43.8188 -4.1718 0.8257
20.2652 -43.1687 -4.1722 0.8257
23.2759 -42.0157 -4.2023 0.8246
24.6936 -41.2525 -4.2063 0.8244
27.7206 -39.9696 -4.2556 0.8226
32.4559 -38.0006 -4.3722 0.8182
35.5028 -36.3321 -4.4443 0.8155
40.4401 -33.8181 -4.6121 0.8092
42.2779 -33.0132 -4.6929 0.8062
45.9026 -31.1330 -4.8525 0.8004
48.2153 -30.3953 -4.9865 0.7954
49.6335 -29.0133 -5.0298 0.7939
50.4173 -25.1045 -4.9275 0.7976
52.0035 -21.6811 -4.9293 0.7975
52.8291 -19.9760 -4.9413 0.7971
54.0135 -12.5061 -4.8506 0.8004
54.1155 -10.6340 -4.8250 0.8014
52.4466 -8.4928 -4.6483 0.8079
51.4144 -6.5672 -4.5347 0.8121
54.5125 -3.2776 -4.7778 0.8031
54.3010 -1.4425 -4.7524 0.8040
53.4271 3.9569 -4.6871 0.8065
40.9793 11.5577 -3.7251 0.8429
35.4204 11.2833 -3.2523 0.8613
28.1498 10.0174 -2.6141 0.8869
25.9924 11.2624 -2.4783 0.8925
22.5877 10.6994 -2.1867 0.9045
19.7313 11.0204 -1.9773 0.9132
14.0191 10.5109 -1.5330 0.9321
11.3330 11.1514 -1.3910 0.9382
11.3725 11.9659 -1.4443 0.9359
11.4383 12.8721 -1.5065 0.9332
11.3049 15.6359 -1.6881 0.9255
11.3204 16.8161 -1.7735 0.9218
10.6280 18.3271 -1.8535 0.9185
8.4299 18.6247 -1.7886 0.9212
7.8350 18.9779 -1.7963 0.9209
7.1900 19.2160 -1.7950 0.9209
5.6878 18.9876 -1.7341 0.9235
6.6640 34.5453 -3.0780 0.8683
3.0968 34.2850 -3.0118 0.8709
-0.3574 34.3463 -3.0051 0.8712
-2.6709 34.4408 -3.0222 0.8705
-3.1943 21.9696 -1.9423 0.9147
-3.9109 21.7538 -1.9337 0.9151
-6.1738 21.6029 -1.9657 0.9137
-12.3013 34.1916 -3.1791 0.8642
-13.4416 33.7659 -3.1796 0.8642
-15.3571 32.1321 -3.1158 0.8668
-20.4875 33.6933 -3.4499 0.8536
-21.9357 33.4941 -3.5028 0.8515
-25.3768 33.6035 -3.6841 0.8444
-28.8647 33.3250 -3.8572 0.8378
-30.8181 33.2608 -3.9670 0.8335
-41.6845 39.3432 -5.0148 0.7944
-46.7560 31.2405 -4.9197 0.7979
-47.6667 29.5893 -4.9084 0.7983
-49.2118 28.3106 -4.9671 0.7962
-49.8591 26.5015 -4.9400 0.7971
-50.2167 24.5714 -4.8911 0.7989
-51.2127 18.9598 -4.7777 0.8031
-51.4350 17.1065 -4.7423 0.8044
-52.0680 13.5219 -4.7065 0.8057
-52.7212 4.5777 -4.6299 0.8086
-52.5441 1.0311 -4.5979 0.8098
-51.8262 -4.2000 -4.5491 0.8116
-51.4700 -5.9118 -4.5326 0.8122
-50.0849 -9.1838 -4.4549 0.8151
-49.5565 -10.8138 -4.4376 0.8157
-47.0400 -18.9150 -4.4357 0.8158
-45.3411 -21.8636 -4.4039 0.8170
-41.7792 -25.6032 -4.2870 0.8214
-39.8438 -28.2519 -4.2733 0.8219
-37.7535 -30.7662 -4.2609 0.8224
-36.5072 -31.8433 -4.2383 0.8232
-35.3281 -32.9621 -4.2272 0.8237
-31.1791 -31.1081 -3.8533 0.8379
-28.8577 -35.2473 -3.9854 0.8328
-29.1580 -38.1526 -4.2011 0.8246
-27.6032 -38.7416 -4.1618 0.8261
-26.6509 -40.1881 -4.2189 0.8240
-25.6680 -41.6715 -4.2819 0.8216
-24.2709 -42.5303 -4.2842 0.8215
-21.3431 -44.0051 -4.2789 0.8217
-20.0161 -45.0523 -4.3131 0.8204
-16.0175 -48.7247 -4.4873 0.8139
-14.0885 -48.2463 -4.3973 0.8172
-5.6775 -48.4552 -4.2683 0.8221
-4.0367 -48.4399 -4.2526 0.8227
-0.7697 -47.6521 -4.1696 0.8258
3.9688 -46.9498 -4.1222 0.8276
7.0900 -46.4952 -4.1148 0.8279
10.1726 -45.8538 -4.1092 0.8281
11.6964 -45.4639 -4.1071 0.8282
17.8808 -44.0261 -4.1573 0.8263
20.9482 -43.0602 -4.1894 0.8251
23.8389 -41.6579 -4.1992 0.8247
25.2938 -40.9548 -4.2114 0.8243
26.7165 -40.1831 -4.2217 0.8239
28.3616 -39.7060 -4.2690 0.8221
29.9321 -39.0690 -4.3059 0.8207
31.5957 -38.4979 -4.3572 0.8188
33.0290 -37.6024 -4.3787 0.8179
36.0709 -35.9032 -4.4526 0.8152
43.0591 -32.6718 -4.7289 0.8049
46.9213 -30.8823 -4.9144 0.7981
50.0173 -26.1422 -4.9376 0.7972
50.5921 -24.3215 -4.9111 0.7982
51.4965 -22.6657 -4.9225 0.7978
52.3516 -20.9784 -4.9342 0.7974
53.0169 -19.2106 -4.9335 0.7974
53.1357 -17.2636 -4.8880 0.7990
53.9806 -15.5599 -4.9150 0.7981
54.1474 -13.6617 -4.8857 0.7991
54.2451 -11.7692 -4.8562 0.8002
51.5766 -7.6191 -4.5613 0.8111
-39.1337 -2.6255 -4.8158 0.8538
-38.2472 -5.1552 -4.7386 0.8560
-37.4850 -7.6365 -4.6971 0.8571
-37.1205 -8.8665 -4.6860 0.8574
-36.8587 -10.1200 -4.6932 0.8572
-36.5073 -11.3513 -4.6942 0.8572
-34.6404 -14.7250 -4.6216 0.8593
-33.6711 -17.0585 -4.6346 0.8589
-30.7012 -21.1352 -4.5765 0.8605
-29.0550 -23.0142 -4.5511 0.8612
-28.3064 -24.0069 -4.5572 0.8611
-24.8006 -27.5226 -4.5489 0.8613
-23.8112 -28.2738 -4.5387 0.8616
-22.7520 -28.9296 -4.5190 0.8622
-20.2319 -31.8480 -4.6328 0.8589
-19.3134 -32.7782 -4.6713 0.8579
-13.6157 -35.6344 -4.6839 0.8575
-11.5894 -33.6723 -4.3725 0.8663
-10.4385 -33.9871 -4.3655 0.8665
-9.2802 -34.2650 -4.3588 0.8667
-5.8633 -35.4293 -4.4093 0.8653
-4.7154 -35.9250 -4.4489 0.8641
-3.5262 -36.2321 -4.4698 0.8635
-2.3269 -36.5827 -4.5009 0.8627
1.3638 -36.8797 -4.5313 0.8618
3.8702 -37.0955 -4.5795 0.8604
5.1019 -36.8848 -4.5720 0.8607
6.3572 -36.8259 -4.5885 0.8602
10.0497 -36.1116 -4.6024 0.8598
12.6621 -35.9762 -4.6829 0.8575
13.9259 -35.7014 -4.7053 0.8569
22.6925 -32.7198 -4.8891 0.8517
24.0373 -32.2931 -4.9430 0.8502
25.2900 -31.7016 -4.9793 0.8492
26.6578 -31.2120 -5.0399 0.8475
27.3627 -29.9456 -4.9807 0.8492
28.9415 -29.6175 -5.0845 0.8463
31.2028 -27.9213 -5.1412 0.8447
31.5121 -26.3520 -5.0438 0.8474
32.4001 -25.3001 -5.0474 0.8473
33.2162 -24.1914 -5.0454 0.8474
33.7282 -22.8759 -5.0040 0.8485
34.2983 -21.6219 -4.9783 0.8493
35.3491 -19.1047 -4.9337 0.8505
36.8874 -16.8503 -4.9794 0.8492
37.3351 -15.5656 -4.9666 0.8496
37.7007 -14.2556 -4.9489 0.8501
38.0020 -11.5275 -4.8760 0.8521
38.2651 -10.2213 -4.8631 0.8525
39.0126 -6.3174 -4.8525 0.8528
39.2198 -2.3581 -4.8243 0.8536
38.9038 -1.0335 -4.7785 0.8548
39.0073 0.2706 -4.7896 0.8545
38.4600 4.1474 -4.7497 0.8556
37.7993 6.6603 -4.7127 0.8567
37.4963 7.9100 -4.7053 0.8569
36.7480 9.0475 -4.6468 0.8585
36.0404 11.4809 -4.6443 0.8586
25.9805 11.2573 -3.4766 0.8922
23.1387 10.9604 -3.1437 0.9020
21.6439 11.1546 -2.9897 0.9065
19.7002 11.0030 -2.7706 0.9131
18.4605 11.1376 -2.6472 0.9168
14.8010 10.3413 -2.2170 0.9298
14.1031 10.5738 -2.1643 0.9314
11.8327 10.8877 -1.9743 0.9373
11.3625 11.9553 -2.0251 0.9357
11.3886 13.7150 -2.1889 0.9307
11.4029 14.7078 -2.2851 0.9277
10.6177 18.3093 -2.5988 0.9182
9.8835 18.4400 -2.5689 0.9191
9.1051 18.4459 -2.5258 0.9204
8.4856 18.7479 -2.5268 0.9204
7.2351 19.3366 -2.5350 0.9202
6.7417 20.0385 -2.5959 0.9183
5.6809 18.9645 -2.4308 0.9233
6.6359 34.3997 -4.3016 0.8683
5.4364 34.3265 -4.2673 0.8693
4.2596 34.2940 -4.2431 0.8700
3.1089 34.4197 -4.2434 0.8700
-1.5095 34.3615 -4.2231 0.8706
-3.1065 27.8995 -3.4468 0.8930
-3.2737 22.5157 -2.7936 0.9124
-4.6792 21.8063 -2.7384 0.9140
-12.2202 33.9662 -4.4322 0.8646
-13.4910 33.8901 -4.4788 0.8633
-13.9507 31.8930 -4.2742 0.8691
-15.2974 32.0072 -4.3558 0.8668
-18.3802 32.6422 -4.5997 0.8599
-20.7425 31.6723 -4.6486 0.8585
-22.6899 30.0455 -4.6229 0.8592
-23.8647 29.4929 -4.6583 0.8582
-24.8744 28.7181 -4.6649 0.8580
-25.7981 27.8429 -4.6606 0.8582
-26.6888 26.9359 -4.6558 0.8583
-31.0037 23.8653 -4.8040 0.8541
-31.9196 22.9099 -4.8242 0.8536
-32.8040 21.9183 -4.8442 0.8530
-33.6014 20.8582 -4.8560 0.8527
-34.8041 18.4993 -4.8396 0.8531
-35.2308 17.2386 -4.8159 0.8538
-36.4330 16.3382 -4.9026 0.8514
-37.5764 13.9114 -4.9198 0.8509
-38.0529 11.2553 -4.8724 0.8522
-38.4315 8.6179 -4.8360 0.8532
-38.5998 7.3073 -4.8236 0.8536
-38.8308 6.0118 -4.8246 0.8535
-39.2376 3.4069 -4.8359 0.8532
-39.2477 2.0867 -4.8258 0.8535
-39.2557 -0.5447 -4.8205 0.8537
-38.4416 -4.4154 -4.7511 0.8556
-38.0895 -5.6731 -4.7284 0.8562
-37.3214 -8.1440 -4.6903 0.8573
-37.0154 -9.3862 -4.6888 0.8574
-36.7421 -10.6384 -4.6967 0.8571
-35.5208 -12.9188 -4.6409 0.8587
-34.8814 -14.0260 -4.6162 0.8594
-34.5088 -15.2378 -4.6318 0.8590
-34.0477 -16.4179 -4.6412 0.8587
-33.3497 -17.4813 -4.6233 0.8592
-32.1921 -19.7280 -4.6359 0.8589
-30.3001 -21.4848 -4.5607 0.8610
-29.4794 -22.4233 -4.5477 0.8613
-28.7498 -23.4289 -4.5537 0.8612
-28.0183 -24.4389 -4.5650 0.8609
-27.2010 -25.3792 -4.5678 0.8608
-26.3349 -26.2749 -4.5677 0.8608
-25.6988 -27.4180 -4.6141 0.8595
-24.3934 -27.8378 -4.5447 0.8614
-23.3018 -28.4613 -4.5164 0.8622
-22.4114 -29.3249 -4.5318 0.8618
-20.7558 -31.2985 -4.6112 0.8595
-19.8554 -32.2349 -4.6485 0.8585
-18.9423 -33.1928 -4.6925 0.8573
-17.1065 -35.2702 -4.8131 0.8539
-15.6666 -35.2625 -4.7378 0.8560
-14.3500 -35.4537 -4.6962 0.8572
-8.7985 -34.3693 -4.3561 0.8668
-7.6441 -34.6517 -4.3570 0.8667
-6.5348 -35.1865 -4.3942 0.8657
-5.3944 -35.6603 -4.4284 0.8647
-0.5945 -36.8057 -4.5198 0.8621
0.6395 -36.8725 -4.5280 0.8619
1.8792 -36.9333 -4.5407 0.8615
3.1320 -37.0499 -4.5654 0.8608
4.3922 -37.1034 -4.5875 0.8602
5.6245 -36.8842 -4.5812 0.8604
6.8689 -36.7418 -4.5895 0.8602
8.1012 -36.5165 -4.5927 0.8601
9.3280 -36.2579 -4.5969 0.8600
10.6429 -36.2862 -4.6431 0.8586
11.9341 -36.1578 -4.6752 0.8577
14.4494 -35.5774 -4.7149 0.8566
20.7292 -33.5639 -4.8437 0.8530
21.9899 -33.0741 -4.8767 0.8521
23.2530 -32.5540 -4.9121 0.8511
24.5899 -32.0961 -4.9645 0.8496
27.1690 -30.9310 -5.0549 0.8471
29.4509 -29.3140 -5.1021 0.8458
30.5606 -28.4458 -5.1263 0.8451
31.2052 -27.1533 -5.0790 0.8465
32.7646 -24.8607 -5.0500 0.8473
33.4968 -23.6915 -5.0376 0.8476
34.5502 -21.1166 -4.9718 0.8494
35.0944 -19.8664 -4.9516 0.8500
35.5487 -18.5800 -4.9251 0.8507
36.6044 -17.5971 -4.9868 0.8490
37.0782 -16.3196 -4.9741 0.8494
37.8255 -12.2894 -4.8834 0.8519
38.1168 -10.9872 -4.8707 0.8523
38.3600 -9.6785 -4.8576 0.8526
38.7324 -8.4035 -4.8664 0.8524
38.9300 -7.0905 -4.8586 0.8526
39.0615 -5.7703 -4.8482 0.8529
39.1471 -4.4492 -4.8376 0.8532
39.1412 -1.8088 -4.8111 0.8539
-30.8459 -4.1576 -4.9297 0.8816
-30.5548 -5.1655 -4.9081 0.8821
-30.3768 -6.1884 -4.9100 0.8820
-30.1196 -7.1943 -4.9047 0.8821
-29.9280 -8.2171 -4.9155 0.8819
-29.9895 -9.3247 -4.9742 0.8806
-29.7349 -10.3497 -4.9867 0.8803
-29.1439 -11.2517 -4.9480 0.8812
-28.4646 -12.0998 -4.8988 0.8823
-28.1135 -13.0789 -4.9110 0.8820
-27.5558 -13.9603 -4.8925 0.8824
-27.3905 -15.0499 -4.9500 0.8811
-26.9804 -16.0236 -4.9701 0.8807
-26.2196 -16.7843 -4.9308 0.8815
-25.5890 -17.6159 -4.9204 0.8818
-24.7441 -19.5996 -4.9996 0.8800
-22.4820 -21.8169 -4.9618 0.8808
-21.7745 -22.5946 -4.9699 0.8807
-20.6224 -22.8859 -4.8793 0.8827
-18.6548 -25.4283 -4.9950 0.8801
-17.0266 -24.9176 -4.7799 0.8850
-15.5435 -24.4678 -4.5912 0.8892
-12.8168 -25.5177 -4.5228 0.8908
-11.1669 -26.5251 -4.5583 0.8900
-8.7555 -28.5073 -4.7233 0.8862
-4.0524 -30.8740 -4.9319 0.8815
-3.0361 -31.1968 -4.9644 0.8808
-2.0053 -31.5265 -5.0034 0.8799
-0.9605 -31.9783 -5.0671 0.8785
1.1818 -31.9582 -5.0651 0.8785
4.4325 -32.0452 -5.1238 0.8772
7.6712 -31.6302 -5.1550 0.8765
8.7545 -31.4573 -5.1717 0.8761
9.8625 -31.3354 -5.2031 0.8754
12.0092 -30.7875 -5.2341 0.8747
13.0323 -30.3654 -5.2336 0.8747
14.0247 -29.8753 -5.2272 0.8749
14.9799 -29.3156 -5.2142 0.8752
16.0387 -28.9517 -5.2421 0.8746
17.1136 -28.5895 -5.2774 0.8738
17.3753 -26.9366 -5.0769 0.8783
18.1372 -26.1516 -5.0407 0.8791
19.1731 -25.7583 -5.0858 0.8781
20.8671 -24.4320 -5.0889 0.8780
21.5595 -23.5946 -5.0621 0.8786
22.9547 -21.9684 -5.0324 0.8793
23.6790 -21.1887 -5.0327 0.8793
25.7860 -17.4891 -4.9349 0.8815
27.4832 -14.8535 -4.9480 0.8812
27.9307 -13.9076 -4.9419 0.8813
28.2363 -12.8985 -4.9167 0.8819
28.6799 -11.9571 -4.9214 0.8818
29.3481 -9.9874 -4.9101 0.8820
29.9834 -6.9423 -4.8745 0.8828
30.4463 -5.9828 -4.9144 0.8819
30.5331 -0.8111 -4.8377 0.8836
30.5680 0.2120 -4.8416 0.8836
29.8665 3.2207 -4.7578 0.8855
29.1906 6.1579 -4.7251 0.8862
28.6157 7.0453 -4.6676 0.8875
27.3739 7.7205 -4.5047 0.8912
27.9318 8.8978 -4.6430 0.8881
26.9828 9.6021 -4.5362 0.8905
26.5571 10.4653 -4.5210 0.8908
25.6769 11.1257 -4.4322 0.8929
21.1692 10.9100 -3.7720 0.9081
19.5496 10.9188 -3.5466 0.9133
18.3366 11.0628 -3.3919 0.9169
16.7988 10.9187 -3.1733 0.9221
13.6414 10.9601 -2.7715 0.9316
12.7229 10.9431 -2.6580 0.9343
11.8285 10.8837 -2.5458 0.9370
11.3387 11.1570 -2.5195 0.9376
11.5693 14.9224 -2.9906 0.9264
11.1076 17.7559 -3.3172 0.9187
8.4751 18.7246 -3.2553 0.9201
7.1831 19.1976 -3.2465 0.9203
6.7187 19.9701 -3.3372 0.9182
5.6836 18.9735 -3.1370 0.9229
6.4041 28.1022 -4.5651 0.8898
4.4640 28.1865 -4.5199 0.8909
3.5848 28.8615 -4.6063 0.8889
0.6780 29.3572 -4.6510 0.8879
-0.3032 29.1327 -4.6144 0.8887
-2.1566 27.8094 -4.4178 0.8932
-3.8945 21.6625 -3.4860 0.9147
-10.6109 26.6550 -4.5440 0.8903
-11.6360 26.6013 -4.5987 0.8891
-12.6908 26.5534 -4.6613 0.8876
-13.6208 26.2056 -4.6777 0.8873
-14.4063 25.5848 -4.6505 0.8879
-15.9186 24.3065 -4.6019 0.8890
-16.6997 23.7258 -4.5953 0.8891
-17.5760 23.2738 -4.6193 0.8886
-18.4383 22.7868 -4.6426 0.8881
-19.2777 22.2565 -4.6636 0.8876
-19.9980 21.5831 -4.6602 0.8877
-22.3856 19.7535 -4.7286 0.8861
-23.0420 18.9989 -4.7301 0.8861
-24.8293 16.5899 -4.7296 0.8861
-25.3197 15.7173 -4.7201 0.8863
-26.5062 14.0888 -4.7544 0.8855
-27.2808 13.3486 -4.8104 0.8843
-27.8678 12.4972 -4.8373 0.8837
-28.8451 10.6790 -4.8716 0.8829
-29.2491 9.7278 -4.8821 0.8826
-29.8136 7.7425 -4.8786 0.8827
-30.3579 5.7470 -4.8936 0.8824
-30.5257 4.7260 -4.8924 0.8824
-30.8537 3.7236 -4.9222 0.8817
-30.5686 2.6542 -4.8598 0.8831
-31.2246 0.6127 -4.9464 0.8812
-31.2720 -0.4339 -4.9535 0.8810
-31.2177 -1.4799 -4.9499 0.8811
-30.2628 -6.6037 -4.9059 0.8821
-29.8602 -8.6458 -4.9236 0.8817
-29.9596 -9.7732 -4.9912 0.8802
-29.4728 -10.7192 -4.9672 0.8807
-28.8517 -11.6014 -4.9252 0.8817
-28.2765 -12.4858 -4.8957 0.8823
-27.9937 -13.4987 -4.9223 0.8817
-25.9034 -17.0932 -4.9154 0.8819
-23.7246 -20.6937 -4.9862 0.8803
-20.2347 -23.0920 -4.8629 0.8831
-18.8573 -24.6744 -4.9186 0.8818
-18.3337 -25.7317 -5.0041 0.8799
-16.3847 -24.7072 -4.6955 0.8869
-15.0353 -24.4096 -4.5407 0.8904
-10.0276 -27.3771 -4.6178 0.8886
-8.4033 -28.7773 -4.7482 0.8857
-7.5053 -29.3176 -4.7932 0.8847
-5.6321 -30.3260 -4.8853 0.8826
-3.6322 -30.9999 -4.9435 0.8813
-2.6198 -31.4377 -4.9965 0.8801
-0.5179 -32.0623 -5.0788 0.8782
1.6234 -31.9047 -5.0597 0.8786
2.7012 -31.9537 -5.0790 0.8782
3.8013 -32.1123 -5.1216 0.8773
9.2114 -31.4054 -5.1837 0.8759
11.4139 -31.0473 -5.2392 0.8746
13.4577 -30.1937 -5.2357 0.8747
17.6869 -26.6020 -5.0596 0.8786
18.5493 -25.9688 -5.0546 0.8788
20.3993 -24.8556 -5.0928 0.8779
21.1658 -24.0965 -5.0798 0.8782
21.8723 -23.2799 -5.0593 0.8787
23.2050 -21.5993 -5.0211 0.8795
24.9545 -18.9347 -4.9614 0.8809
26.0133 -17.1212 -4.9324 0.8815
26.4969 -16.1945 -4.9185 0.8818
28.3885 -12.4949 -4.9125 0.8820
26.7438 -10.7168 -4.5632 0.8899
29.2286 -10.5909 -4.9239 0.8817
29.4244 -9.5599 -4.9002 0.8822
29.5117 -8.5068 -4.8645 0.8830
29.6600 -7.4834 -4.8449 0.8835
30.2060 -6.5536 -4.8955 0.8823
30.4923 -3.4656 -4.8606 0.8831
30.4968 -1.4093 -4.8354 0.8837
-25.7452 0.0000 -5.0043 0.9004
-25.6842 -0.8606 -4.9953 0.9006
-25.2975 -3.4098 -4.9618 0.9012
-24.8484 -7.7262 -5.0581 0.8994
-24.3357 -10.3447 -5.1400 0.8979
-19.3784 -15.3495 -4.8053 0.9042
-18.7609 -15.9113 -4.7817 0.9046
-17.5269 -17.0084 -4.7473 0.9053
-16.1319 -17.9025 -4.6843 0.9065
-15.5760 -18.4952 -4.7002 0.9062
-14.4609 -19.7117 -4.7521 0.9052
-13.9078 -20.3534 -4.7917 0.9044
-13.3229 -20.9722 -4.8296 0.9037
-12.1176 -22.2363 -4.9224 0.9020
-9.8693 -23.4428 -4.9442 0.9015
-9.1336 -23.9041 -4.9741 0.9010
-8.4128 -24.4429 -5.0248 0.9000
-6.9832 -25.7837 -5.1924 0.8969
-5.3117 -26.5439 -5.2619 0.8956
-4.4052 -26.6185 -5.2445 0.8959
-3.5282 -26.8800 -5.2698 0.8954
0.0921 -26.5661 -5.1639 0.8974
2.7074 -25.9505 -5.0716 0.8991
3.5902 -25.9558 -5.0933 0.8987
5.3521 -25.8139 -5.1244 0.8981
6.2213 -25.6519 -5.1308 0.8980
7.0629 -25.3789 -5.1206 0.8982
10.3440 -24.1017 -5.0981 0.8986
11.9541 -23.3942 -5.1066 0.8985
12.7421 -23.0010 -5.1112 0.8984
13.4530 -22.4742 -5.0914 0.8988
14.0833 -21.8330 -5.0502 0.8995
15.5634 -20.9089 -5.0666 0.8992
16.2694 -20.3941 -5.0711 0.8991
16.9511 -19.8470 -5.0734 0.8991
17.6711 -19.3392 -5.0921 0.8988
18.4588 -18.8900 -5.1338 0.8980
18.8883 -18.0768 -5.0820 0.8989
19.4448 -17.3999 -5.0720 0.8991
20.2258 -15.7936 -4.9881 0.9007
21.0960 -14.3081 -4.9548 0.9013
21.5825 -13.6058 -4.9593 0.9013
21.9986 -12.8593 -4.9531 0.9014
22.6007 -11.2537 -4.9076 0.9022
22.8600 -10.4426 -4.8852 0.9027
23.9749 -7.2725 -4.8699 0.9029
24.1443 -6.4493 -4.8577 0.9032
24.8412 -2.3307 -4.8498 0.9033
24.7963 -1.4909 -4.8286 0.9037
24.9182 1.0080 -4.8476 0.9034
24.7947 1.8363 -4.8328 0.9037
24.4609 2.6378 -4.7823 0.9046
24.1127 3.4206 -4.7340 0.9055
23.9499 4.2200 -4.7271 0.9057
23.8332 5.0277 -4.7347 0.9055
23.6896 5.8324 -4.7423 0.9054
23.5191 6.6333 -4.7500 0.9052
22.8238 8.1221 -4.7090 0.9060
22.4417 8.8436 -4.6887 0.9064
21.1829 10.9170 -4.6322 0.9075
19.7252 11.0169 -4.3917 0.9120
16.5637 10.7659 -3.8400 0.9227
15.4721 10.8102 -3.6688 0.9260
13.5642 10.8981 -3.3822 0.9316
11.7434 10.8055 -3.1020 0.9370
11.4362 12.0329 -3.2268 0.9346
11.3235 12.7430 -3.3136 0.9329
11.4103 13.7412 -3.4718 0.9298
11.4570 14.7775 -3.6346 0.9266
11.5446 15.9675 -3.8300 0.9228
11.0950 17.7358 -4.0665 0.9183
10.6833 18.4224 -4.1395 0.9169
9.8913 18.4544 -4.0699 0.9182
9.0785 18.3919 -3.9868 0.9198
8.4238 18.6113 -3.9710 0.9201
7.8531 19.0216 -4.0001 0.9196
6.9108 18.4698 -3.8333 0.9228
6.1760 18.3568 -3.7647 0.9241
5.7212 19.0989 -3.8754 0.9220
3.7010 19.1856 -3.7980 0.9235
2.3573 18.9789 -3.7175 0.9250
-0.2491 23.9361 -4.6530 0.9071
-1.0272 23.3840 -4.5498 0.9090
-1.7840 23.0044 -4.4850 0.9103
-3.1811 21.8786 -4.2975 0.9138
-3.8656 21.5016 -4.2465 0.9148
-4.5182 21.0557 -4.1860 0.9160
-5.2333 20.9429 -4.1961 0.9158
-6.1234 21.4265 -4.3316 0.9132
-7.5203 20.9029 -4.3181 0.9135
-8.3512 20.9786 -4.3890 0.9121
-9.1900 21.0094 -4.4574 0.9108
-10.1008 21.1343 -4.5532 0.9090
-11.8998 21.1334 -4.7144 0.9059
-12.6104 20.7387 -4.7179 0.9058
-13.2902 20.2931 -4.7152 0.9059
-14.5883 19.3176 -4.7054 0.9061
-15.1902 18.7726 -4.6940 0.9063
-15.8022 18.2439 -4.6916 0.9063
-16.3949 17.6944 -4.6889 0.9064
-16.9699 17.1270 -4.6866 0.9064
-18.2048 16.0643 -4.7194 0.9058
-18.7964 15.4982 -4.7355 0.9055
-21.2921 12.2490 -4.7748 0.9048
-22.1756 10.8506 -4.7988 0.9043
-22.6280 10.1474 -4.8205 0.9039
-23.0567 9.4255 -4.8418 0.9035
-23.7129 7.8865 -4.8576 0.9032
-24.7038 3.8246 -4.8591 0.9032
-25.6399 0.5032 -4.9848 0.9008
-25.8168 -0.3582 -5.0187 0.9001
-25.5443 -1.2109 -4.9709 0.9010
-25.5156 -2.0678 -4.9760 0.9009
-25.4259 -2.9204 -4.9748 0.9010
-25.2026 -3.7537 -4.9529 0.9014
-24.9596 -4.5767 -4.9325 0.9018
-25.4276 -5.5486 -5.0589 0.8994
-24.8378 -6.2982 -4.9808 0.9009
-25.0084 -8.1581 -5.1132 0.8984
-24.5902 -9.8879 -5.1518 0.8976
-22.8578 -11.9816 -5.0165 0.9002
-21.7978 -13.3582 -4.9694 0.9011
-20.3981 -14.4636 -4.8606 0.9031
-19.7424 -15.0169 -4.8215 0.9039
-19.0895 -15.5565 -4.7867 0.9045
-17.9327 -16.7317 -4.7674 0.9049
-16.6126 -17.7240 -4.7220 0.9058
-15.8851 -18.1281 -4.6852 0.9065
-15.3640 -18.7659 -4.7143 0.9059
-14.8235 -19.3963 -4.7452 0.9053
-13.6674 -20.6097 -4.8070 0.9041
-13.0841 -21.2419 -4.8494 0.9033
-11.1423 -22.9733 -4.9631 0.9012
-10.3536 -23.3040 -4.9568 0.9013
-8.1604 -24.8236 -5.0793 0.8990
-4.0409 -26.7129 -5.2515 0.8958
-3.1681 -27.0385 -5.2917 0.8950
-1.3503 -27.1759 -5.2890 0.8951
-0.4314 -26.7046 -5.1915 0.8969
0.4588 -26.4498 -5.1421 0.8978
1.3357 -26.2518 -5.1094 0.8984
3.0717 -25.9487 -5.0791 0.8990
4.8423 -25.9014 -5.1219 0.8982
8.2232 -24.9145 -5.0999 0.8986
9.0493 -24.6151 -5.0978 0.8986
10.6932 -23.9912 -5.1057 0.8985
12.2757 -23.2225 -5.1059 0.8985
13.0610 -22.8237 -5.1115 0.8984
14.3950 -21.6509 -5.0538 0.8995
15.8605 -20.7019 -5.0693 0.8992
17.9869 -19.1445 -5.1061 0.8985
18.7718 -18.6845 -5.1483 0.8977
19.6507 -17.0991 -5.0633 0.8993
20.0190 -16.2743 -5.0149 0.9002
21.3002 -14.0192 -4.9566 0.9013
21.7776 -13.3101 -4.9612 0.9012
22.4466 -11.7320 -4.9232 0.9019
23.4632 -9.4022 -4.9133 0.9021
24.2239 -6.1118 -4.8562 0.9032
24.6790 -4.4949 -4.8760 0.9028
24.8496 -3.6709 -4.8827 0.9027
24.8161 -1.1468 -4.8289 0.9037
-21.5461 0.0000 -4.9743 0.9153
-21.6341 -0.7249 -4.9974 0.9150
-21.6061 -2.1784 -5.0134 0.9147
-21.4733 -3.6302 -5.0278 0.9145
-21.3703 -4.3536 -5.0351 0.9144
-20.9769 -5.7595 -5.0221 0.9146
-19.9500 -6.9439 -4.8768 0.9169
-19.6437 -8.3502 -4.9278 0.9161
-18.0783 -10.7367 -4.8543 0.9173
-17.2142 -11.8505 -4.8249 0.9178
-16.9870 -12.5529 -4.8764 0.9169
-16.5526 -14.0384 -5.0108 0.9148
-16.1792 -14.6811 -5.0438 0.9142
-15.5706 -15.1100 -5.0091 0.9148
-15.1327 -15.7027 -5.0347 0.9144
-14.0841 -16.7237 -5.0477 0.9142
-13.4317 -17.0787 -5.0162 0.9147
-12.4483 -18.2174 -5.0939 0.9134
-12.0057 -18.8988 -5.1691 0.9122
-11.4813 -19.4857 -5.2215 0.9113
-10.8490 -19.9084 -5.2344 0.9111
-10.1629 -20.2341 -5.2275 0.9112
-9.4714 -20.5453 -5.2230 0.9113
-8.0981 -21.1938 -5.2380 0.9111
-7.4055 -21.5161 -5.2534 0.9108
-5.2152 -22.1742 -5.2590 0.9107
-3.6796 -22.2339 -5.2029 0.9116
-2.9238 -22.2750 -5.1867 0.9119
-2.1694 -22.2906 -5.1705 0.9122
0.0764 -22.0409 -5.0886 0.9135
0.8187 -22.1383 -5.1145 0.9131
2.2958 -22.0056 -5.1080 0.9132
3.0304 -21.9085 -5.1061 0.9132
3.7612 -21.7878 -5.1045 0.9132
6.6325 -21.0729 -5.1003 0.9133
7.3310 -20.8292 -5.0980 0.9133
8.0270 -20.5787 -5.0996 0.9133
9.9897 -19.5498 -5.0685 0.9138
11.1870 -18.6886 -5.0285 0.9145
12.4471 -17.9472 -5.0424 0.9142
13.7697 -17.2606 -5.0976 0.9133
15.4609 -15.8221 -5.1072 0.9132
15.8899 -15.2072 -5.0778 0.9137
16.5600 -13.8483 -4.9838 0.9152
16.9220 -13.2137 -4.9567 0.9156
17.8256 -12.0901 -4.9726 0.9154
18.2445 -11.5015 -4.9792 0.9153
18.5925 -10.8683 -4.9720 0.9154
18.8682 -10.1975 -4.9515 0.9157
19.4341 -8.8776 -4.9327 0.9160
19.6919 -8.2099 -4.9255 0.9161
19.8947 -7.5227 -4.9104 0.9164
20.0768 -6.8323 -4.8961 0.9166
20.4343 -5.4583 -4.8830 0.9168
20.7996 -4.0872 -4.8938 0.9167
20.9487 -3.3923 -4.8994 0.9166
21.0752 -2.6920 -4.9051 0.9165
21.1787 -1.9870 -4.9110 0.9164
21.2591 -1.2782 -4.9169 0.9163
21.3164 -0.5663 -4.9230 0.9162
21.3502 0.1481 -4.9292 0.9161
21.2814 0.8609 -4.9172 0.9163
20.9777 1.5536 -4.8563 0.9173
20.6614 2.2281 -4.7977 0.9182
20.5071 2.9091 -4.7818 0.9185
20.4092 3.5961 -4.7844 0.9184
20.2476 4.2713 -4.7774 0.9186
19.6485 6.2591 -4.7608 0.9188
18.4845 8.0093 -4.6509 0.9206
17.7374 9.1413 -4.6068 0.9213
16.5586 9.9901 -4.4647 0.9237
13.5749 8.8232 -3.7378 0.9357
13.1869 9.2136 -3.7139 0.9361
14.3412 10.7523 -4.1381 0.9291
12.5407 10.7863 -3.8189 0.9343
11.7348 10.7975 -3.6815 0.9366
11.1871 11.7708 -3.7491 0.9355
11.2310 14.4862 -4.2318 0.9275
10.2056 16.3141 -4.4427 0.9240
4.9721 18.8763 -4.5066 0.9230
4.4149 19.3733 -4.5874 0.9217
2.5786 16.2820 -3.8058 0.9346
1.1047 19.5019 -4.5096 0.9229
-0.2062 19.8148 -4.5748 0.9219
-1.5323 19.7591 -4.5755 0.9219
-2.8373 19.5138 -4.5525 0.9222
-3.4984 19.4592 -4.5645 0.9220
-5.4818 19.1816 -4.6057 0.9214
-6.1607 19.1101 -4.6355 0.9209
-6.8414 19.0157 -4.6656 0.9204
-8.1482 18.6277 -4.6940 0.9199
-9.3283 17.9471 -4.6697 0.9203
-10.0419 17.8339 -4.7251 0.9194
-10.5369 17.3286 -4.6822 0.9201
-11.0641 16.8940 -4.6623 0.9204
-12.1625 16.1053 -4.6593 0.9205
-12.8365 15.8638 -4.7113 0.9196
-14.0309 15.1430 -4.7661 0.9187
-15.1521 14.3011 -4.8102 0.9180
-16.1650 13.3285 -4.8370 0.9176
-16.5755 12.7591 -4.8292 0.9177
-17.2693 11.5386 -4.7950 0.9183
-17.9954 10.3524 -4.7930 0.9183
-18.3833 9.7712 -4.8064 0.9181
-19.1862 7.8432 -4.7853 0.9184
-20.0387 5.9270 -4.8244 0.9178
-20.5915 3.8982 -4.8384 0.9176
-21.0439 2.5397 -4.8936 0.9167
-21.3042 1.8498 -4.9370 0.9160
-21.6057 1.1487 -4.9951 0.9150
-21.5720 -0.2993 -4.9808 0.9152
-21.6415 -1.0259 -5.0019 0.9149
-21.6265 -1.7526 -5.0092 0.9148
-21.4336 -3.9301 -5.0308 0.9144
-20.8930 -6.0494 -5.0216 0.9146
-19.8899 -7.2339 -4.8862 0.9168
-19.8111 -7.9661 -4.9297 0.9161
-19.1887 -9.2529 -4.9182 0.9163
-18.8421 -9.8767 -4.9114 0.9164
-17.8855 -10.9606 -4.8429 0.9175
-17.1225 -12.1410 -4.8459 0.9174
-16.4091 -14.3128 -5.0270 0.9145
-15.9479 -14.8798 -5.0356 0.9144
-15.3442 -15.3093 -5.0041 0.9149
-14.9573 -15.9580 -5.0495 0.9141
-14.4518 -16.4925 -5.0626 0.9139
-12.7414 -17.8828 -5.0693 0.9138
-12.2787 -18.5155 -5.1292 0.9128
-11.7929 -19.1456 -5.1913 0.9118
-11.2365 -19.6899 -5.2339 0.9111
-9.8766 -20.3635 -5.2251 0.9113
-9.1902 -20.6854 -5.2257 0.9113
-8.5044 -21.0112 -5.2331 0.9111
-7.8111 -21.3256 -5.2433 0.9110
-5.6676 -22.1394 -5.2761 0.9104
-4.8958 -22.1931 -5.2469 0.9109
-4.1265 -22.2192 -5.2174 0.9114
-3.3664 -22.2541 -5.1962 0.9117
-1.8575 -22.2896 -5.1638 0.9123
0.3831 -22.0850 -5.0995 0.9133
1.1255 -22.1206 -5.1136 0.9131
1.8641 -22.0514 -5.1091 0.9132
2.6005 -21.9682 -5.1072 0.9132
4.0626 -21.7310 -5.1039 0.9132
4.7869 -21.5773 -5.1026 0.9133
5.5057 -21.4004 -5.1016 0.9133
6.9239 -20.9779 -5.1001 0.9133
8.3117 -20.4652 -5.0996 0.9133
8.9925 -20.1756 -5.0996 0.9133
9.6329 -19.8010 -5.0837 0.9136
10.2385 -19.3686 -5.0579 0.9140
11.4462 -18.5332 -5.0290 0.9145
12.0632 -18.1437 -5.0302 0.9144
12.7239 -17.8133 -5.0539 0.9141
13.3860 -17.4722 -5.0815 0.9136
15.6734 -15.6005 -5.1054 0.9132
16.3707 -14.2451 -5.0100 0.9148
17.1100 -12.9825 -4.9586 0.9156
18.0017 -11.8482 -4.9754 0.9153
18.7101 -10.5915 -4.9636 0.9155
18.9743 -9.9172 -4.9428 0.9159
19.2460 -9.2523 -4.9301 0.9161
19.5629 -8.6104 -4.9346 0.9160
19.7785 -7.9257 -4.9192 0.9162
20.1305 -6.5403 -4.8866 0.9168
20.5172 -5.1766 -4.8852 0.9168
20.7018 -4.4916 -4.8906 0.9167
21.0039 -3.1028 -4.9017 0.9165
21.1208 -2.4005 -4.9075 0.9164
-18.6526 0.0000 -4.9979 0.9257
-18.2738 -4.3649 -5.0342 0.9251
-18.0438 -4.9542 -5.0137 0.9254
-16.9669 -6.5505 -4.8733 0.9275
-16.8178 -7.1489 -4.8965 0.9271
-16.6558 -7.7485 -4.9222 0.9267
-16.4133 -9.0184 -5.0181 0.9254
-16.2380 -9.6437 -5.0604 0.9248
-16.0012 -10.2430 -5.0907 0.9243
-15.7650 -10.8529 -5.1284 0.9238
-15.5325 -11.4781 -5.1750 0.9231
-15.1323 -11.9862 -5.1726 0.9232
-14.1984 -12.8836 -5.1372 0.9237
-13.7688 -13.3615 -5.1409 0.9236
-12.8692 -14.2817 -5.1512 0.9235
-12.3857 -14.7070 -5.1520 0.9235
-11.8691 -15.0918 -5.1446 0.9236
-10.8105 -15.8207 -5.1343 0.9237
-10.3207 -16.2463 -5.1573 0.9234
-9.2624 -16.9969 -5.1867 0.9230
-8.7008 -17.3230 -5.1943 0.9229
-8.1408 -17.6589 -5.2103 0.9226
-6.2093 -18.0407 -5.1123 0.9240
-5.6353 -18.3482 -5.1430 0.9236
-2.4662 -18.7886 -5.0776 0.9245
-1.8345 -18.8501 -5.0747 0.9246
-0.5680 -18.9113 -5.0696 0.9246
0.0656 -18.9111 -5.0672 0.9247
0.7013 -18.9630 -5.0846 0.9244
1.3411 -19.0025 -5.1044 0.9241
1.9845 -19.0217 -5.1245 0.9239
2.6073 -18.8500 -5.0989 0.9242
3.2582 -18.8740 -5.1321 0.9237
4.5123 -18.6054 -5.1298 0.9238
5.1106 -18.3638 -5.1076 0.9241
7.4845 -17.4389 -5.0849 0.9244
9.6916 -16.1905 -5.0561 0.9248
10.2303 -15.8598 -5.0570 0.9248
10.7581 -15.5118 -5.0582 0.9248
11.2371 -15.0966 -5.0427 0.9250
11.6899 -14.6535 -5.0227 0.9253
12.0954 -14.1618 -4.9903 0.9258
12.5645 -13.7505 -4.9909 0.9258
13.7393 -12.2944 -4.9401 0.9265
14.4990 -11.3218 -4.9291 0.9267
14.8788 -10.8363 -4.9320 0.9266
15.8086 -9.2410 -4.9065 0.9270
16.4523 -8.1922 -4.9247 0.9267
16.7655 -7.6586 -4.9388 0.9265
17.0523 -7.1094 -4.9504 0.9263
17.2709 -6.5306 -4.9475 0.9264
17.8313 -4.1286 -4.9043 0.9270
17.9058 -3.5186 -4.8896 0.9272
17.9095 -2.9001 -4.8613 0.9276
17.9667 -2.2949 -4.8533 0.9277
18.0050 -0.4783 -4.8261 0.9281
17.8923 0.7238 -4.7981 0.9285
17.3568 4.8953 -4.8322 0.9280
16.8062 5.9807 -4.7798 0.9288
15.4328 7.9536 -4.6521 0.9306
15.1548 8.4643 -4.6511 0.9306
15.0069 9.0540 -4.6962 0.9300
13.3668 8.6880 -4.2717 0.9361
12.7056 8.8773 -4.1531 0.9378
12.5893 10.8281 -4.4494 0.9335
11.0334 11.6091 -4.2914 0.9358
10.5871 12.7497 -4.4405 0.9337
9.7881 13.5381 -4.4763 0.9332
8.8373 14.1267 -4.4649 0.9333
8.3012 14.3148 -4.4339 0.9338
7.3936 14.9786 -4.4758 0.9332
6.9279 15.3061 -4.5018 0.9328
5.9040 15.7790 -4.5142 0.9326
4.8423 16.1649 -4.5215 0.9325
2.2749 14.3639 -3.8968 0.9416
1.4993 12.0712 -3.2593 0.9509
0.9629 16.9994 -4.5623 0.9319
0.3966 17.1726 -4.6026 0.9313
-0.7681 17.4844 -4.6895 0.9301
-1.3559 17.4836 -4.6988 0.9300
-1.9352 17.3797 -4.6857 0.9301
-2.5089 17.2555 -4.6722 0.9303
-3.0651 17.0492 -4.6415 0.9308
-5.4071 16.7723 -4.7219 0.9296
-7.7342 16.1825 -4.8059 0.9284
-8.3656 16.0949 -4.8604 0.9276
-8.8991 15.8042 -4.8599 0.9276
-9.3301 15.3440 -4.8118 0.9283
-9.6508 14.7361 -4.7199 0.9297
-10.5249 13.9369 -4.6796 0.9302
-11.0870 13.7017 -4.7227 0.9296
-13.5910 11.9929 -4.8568 0.9277
-13.9772 11.5246 -4.8541 0.9277
-15.3514 9.5295 -4.8415 0.9279
-16.1927 7.9232 -4.8304 0.9281
-17.1297 5.6971 -4.8371 0.9280
-17.5502 4.5577 -4.8586 0.9277
-17.9553 3.3991 -4.8965 0.9271
-18.1867 2.8157 -4.9312 0.9266
-18.6421 -0.2587 -4.9956 0.9257
-18.6348 -1.5102 -5.0096 0.9255
-18.6119 -2.1378 -5.0198 0.9254
-18.5678 -2.7655 -5.0301 0.9252
-18.4935 -3.3910 -5.0379 0.9251
-18.2026 -4.6157 -5.0317 0.9252
-17.8987 -5.1824 -4.9929 0.9257
-17.0540 -6.2025 -4.8624 0.9276
-16.9078 -6.7987 -4.8830 0.9273
-16.7497 -7.3960 -4.9061 0.9270
-16.4935 -8.6456 -4.9898 0.9258
-16.1423 -9.8923 -5.0729 0.9246
-15.8973 -10.4903 -5.1035 0.9242
-15.6714 -11.1121 -5.1476 0.9235
-15.4021 -11.7155 -5.1852 0.9230
-14.0221 -13.0830 -5.1386 0.9237
-13.5869 -13.5560 -5.1427 0.9236
-13.1382 -14.0172 -5.1478 0.9235
-12.6755 -14.4653 -5.1535 0.9234
-11.1253 -15.6146 -5.1373 0.9237
-10.6133 -16.0043 -5.1456 0.9236
-10.1096 -16.4128 -5.1651 0.9233
-9.0242 -17.1210 -5.1858 0.9230
-7.2667 -17.9534 -5.1897 0.9229
-6.6318 -18.1060 -5.1667 0.9233
-5.9604 -18.1314 -5.1141 0.9240
-4.7397 -18.5144 -5.1209 0.9239
-4.0981 -18.5771 -5.0974 0.9242
-3.4635 -18.6491 -5.0825 0.9245
-0.9392 -18.9019 -5.0710 0.9246
-0.3055 -18.9137 -5.0686 0.9247
0.3283 -18.9305 -5.0732 0.9246
0.9658 -18.9818 -5.0927 0.9243
1.6072 -19.0129 -5.1127 0.9240
2.2410 -18.9314 -5.1081 0.9241
2.8877 -18.9372 -5.1329 0.9237
3.5194 -18.8251 -5.1316 0.9238
7.1218 -17.5354 -5.0713 0.9246
7.7418 -17.3695 -5.0955 0.9243
8.3608 -17.1861 -5.1210 0.9239
8.9343 -16.9015 -5.1225 0.9239
9.4211 -16.4631 -5.0825 0.9245
9.9160 -16.0556 -5.0564 0.9248
10.4502 -15.7177 -5.0575 0.9248
11.4256 -14.9133 -5.0340 0.9252
11.8606 -14.4516 -5.0094 0.9255
12.2895 -13.9912 -4.9898 0.9258
13.0142 -12.9537 -4.9201 0.9268
13.4871 -12.5539 -4.9371 0.9265
13.8865 -12.0834 -4.9323 0.9266
14.2694 -11.6003 -4.9275 0.9267
15.0315 -10.6315 -4.9333 0.9266
15.3801 -10.1228 -4.9336 0.9266
15.6343 -9.5554 -4.9097 0.9269
16.5843 -7.9727 -4.9306 0.9266
16.8898 -7.4339 -4.9446 0.9264
17.3507 -6.2870 -4.9449 0.9264
17.5285 -5.6949 -4.9384 0.9265
17.6671 -5.0926 -4.9266 0.9267
17.7371 -4.4752 -4.9016 0.9270
17.8940 -3.8824 -4.9062 0.9270
17.9094 -3.2619 -4.8778 0.9274
17.9354 -2.6495 -4.8579 0.9277
17.9852 -2.0441 -4.8501 0.9278
